# .PCD v0.7 - Point Cloud Data file format
VERSION 0.7
FIELDS x y z
SIZE 4 4 4
TYPE F F F
COUNT 1 1 1
WIDTH 1748
HEIGHT 1
VIEWPOINT 0 0 0 1 0 0 0
POINTS 1748
DATA ascii
-1380.99 -1575.66 1267.14
-1380.98 -1575.76 1269.04
-1380.96 -1575.97 1270.97
-1380.95 -1576.0699 1272.86
-1380.9399 -1576.13 1274.75
-1380.87 -1576.89 1284.34
-1380.86 -1577.02 1286.26
-1380.85 -1577.11 1289.1
-1380.83 -1577.3199 1291.98
-1380.8199 -1577.46 1293.9
-1380.8 -1577.61 1295.8199
-1380.78 -1577.8 1297.77
-1380.78 -1577.87 1299.67
-1380.76 -1578.08 1304.4301
-1380.73 -1578.35 1306.41
-1380.72 -1578.45 1308.33
-1380.7 -1578.67 1311.23
-1380.6899 -1578.8199 1313.16
-1380.67 -1579.03 1315.12
-1380.5699 -1580.0699 1332.48
-1380.5601 -1580.12 1334.39
-1380.55 -1580.26 1336.33
-1380.54 -1580.34 1339.1899
-1380.52 -1580.5699 1341.1801
-1380.5 -1580.76 1343.15
-1380.5 -1580.78 1345.99
-1380.37 -1582.14 1370.27
-1380.36 -1582.25 1372.22
-1380.34 -1582.46 1374.21
-1380.3199 -1582.61 1376.1801
-1380.3101 -1582.74 1378.15
-1380.3101 -1582.76 1381.01
-1380.29 -1582.9399 1383
-1380.27 -1583.16 1385.01
-1380.1899 -1583.9399 1396.8101
-1380.1899 -1584.04 1398.77
-1380.17 -1584.22 1400.77
-1380.14 -1584.55 1403.79
-1380.13 -1584.64 1405.75
-1380.12 -1584.74 1408.66
-1380.1 -1584.98 1410.6899
-1380.0601 -1585.36 1415.67
-1380.04 -1585.54 1419.6
-1382.9 -1565.97 623.85101
-1382.91 -1565.91 625.53601
-1382.92 -1565.8199 628.06
-1382.92 -1565.8 629.73401
-1382.92 -1565.73 631.422
-1382.95 -1565.48 636.492
-1382.97 -1565.24 646.57703
-1382.98 -1565.11 648.28101
-1383 -1564.87 654.19299
-1382.99 -1564.89 655.85901
-1383 -1564.89 657.53601
-1383.01 -1564.77 659.23901
-1383.01 -1564.72 660.92499
-1383.1801 -1562.61 769.33197
-1383.1899 -1562.48 771.901
-1383.1801 -1562.61 773.58698
-1383.1801 -1562.55 775.29498
-1383.1899 -1562.42 779.57001
-1383.1899 -1562.47 781.26703
-1383.2 -1562.33 783.841
-1383.22 -1562.1 792.39301
-1383.23 -1561.96 795.82202
-1383.25 -1561.77 800.96503
-1383.25 -1561.73 802.67603
-1383.26 -1561.66 804.39301
-1383.26 -1561.62 808.66901
-1383.26 -1561.5601 810.38501
-1383.27 -1561.53 812.09998
-1383.27 -1561.49 814.66901
-1383.26 -1561.5601 817.23199
-1383.27 -1561.49 820.664
-1383.27 -1561.4399 822.38
-1383.27 -1561.48 824.091
-1383.27 -1561.47 826.66302
-1383.27 -1561.46 828.38
-1383.27 -1561.47 830.09601
-1383.26 -1561.51 831.80798
-1383.26 -1561.55 834.38
-1383.26 -1561.55 836.09698
-1383.25 -1561.59 837.81299
-1383.25 -1561.67 839.52502
-1383.25 -1561.65 842.10498
-1383.24 -1561.72 843.82098
-1383.24 -1561.74 845.54102
-1383.24 -1561.75 847.26099
-1383.24 -1561.73 848.98199
-1383.24 -1561.76 850.70203
-1383.24 -1561.77 852.42499
-1383.23 -1561.8 854.146
-1383.23 -1561.8101 856.72998
-1383.24 -1561.75 858.45697
-1383.22 -1561.9 860.17401
-1383.22 -1561.9301 862.76001
-1383.22 -1561.92 865.34991
-1383.22 -1561.9399 867.93909
-1383.21 -1561.96 876.57898
-1383.21 -1562 881.76898
-1383.1899 -1562.16 892.15997
-1383.1899 -1562.1899 894.76202
-1383.1899 -1562.16 896.49701
-1383.1801 -1562.23 898.23199
-1383.1899 -1562.1801 901.70502
-1383.17 -1562.39 911.26501
-1383.17 -1562.36 913.005
-1383.16 -1562.45 914.74597
-1383.16 -1562.4399 916.48602
-1383.1 -1562.97 950.55402
-1383.11 -1562.96 952.30499
-1383.11 -1562.91 954.05499
-1383.1 -1563.05 955.81403
-1383.1 -1562.98 957.565
-1383.1 -1563.02 959.32001
-1383.1 -1563.04 961.07501
-1383.1 -1563.04 962.83002
-1383.1 -1563.05 964.586
-1383.1 -1563.03 966.341
-1383.09 -1563.08 968.09998
-1383.09 -1563.13 973.375
-1383.0699 -1563.3199 981.30499
-1383.0601 -1563.35 983.94891
-1383.0699 -1563.3 985.70599
-1383.0699 -1563.29 987.46802
-1383.05 -1563.4399 989.24298
-1383.05 -1563.5 991.89301
-1383.05 -1563.48 993.65399
-1383.03 -1563.73 1003.39
-1383.03 -1563.72 1005.16
-1383 -1563.92 1014.02
-1383 -1564 1016.69
-1382.99 -1564.09 1018.47
-1382.99 -1564.0601 1020.24
-1382.98 -1564.23 1022.03
-1382.98 -1564.21 1023.8
-1382.97 -1564.33 1026.48
-1382.96 -1564.35 1028.25
-1382.96 -1564.38 1031.8101
-1382.9301 -1564.72 1044.3
-1382.86 -1565.4 1065.8
-1382.86 -1565.41 1067.59
-1382.8101 -1565.89 1080.2
-1382.8 -1566.03 1082.02
-1382.8 -1566.0601 1083.8199
-1382.79 -1566.1899 1085.63
-1382.78 -1566.23 1087.4301
-1382.76 -1566.47 1089.27
-1382.76 -1566.51 1091.0699
-1382.74 -1566.6801 1093.8
-1382.73 -1566.74 1095.61
-1382.6899 -1567.22 1106.5
-1382.6899 -1567.23 1108.3
-1382.67 -1567.36 1110.13
-1382.58 -1568.3 1135.63
-1382.5699 -1568.49 1137.48
-1382.5699 -1568.45 1139.29
-1382.55 -1568.71 1142.0601
-1382.55 -1568.6899 1143.88
-1382.54 -1568.74 1145.7
-1382.54 -1568.77 1147.52
-1382.53 -1568.86 1149.36
-1382.53 -1568.9 1151.1899
-1382.51 -1569.02 1153.03
-1382.51 -1569.1 1154.87
-1382.5 -1569.14 1156.7
-1382.5 -1569.17 1158.53
-1382.48 -1569.38 1160.4
-1382.48 -1569.4301 1162.23
-1382.47 -1569.51 1164.98
-1382.45 -1569.6899 1166.85
-1382.46 -1569.61 1168.65
-1382.4399 -1569.79 1170.52
-1382.4399 -1569.83 1172.35
-1382.4301 -1569.92 1174.2
-1382.42 -1570 1176.05
-1382.34 -1570.8199 1189.0601
-1382.34 -1570.89 1190.91
-1382.3199 -1571.05 1193.7
-1382.3101 -1571.22 1195.58
-1382.3 -1571.33 1198.36
-1382.29 -1571.42 1200.23
-1382.28 -1571.51 1202.08
-1382.26 -1571.71 1203.98
-1382.25 -1571.8199 1205.85
-1382.23 -1572.05 1208.67
-1382.21 -1572.27 1211.49
-1382.2 -1572.39 1213.36
-1382.1899 -1572.5 1216.16
-1382.16 -1572.74 1218.0699
-1382.16 -1572.8199 1219.9399
-1382.14 -1572.96 1221.8199
-1382.14 -1572.98 1223.67
-1382.03 -1574.13 1239.73
-1382.03 -1574.23 1241.61
-1382.01 -1574.38 1243.51
-1382.01 -1574.4301 1246.3101
-1381.99 -1574.61 1248.22
-1381.98 -1574.72 1251.03
-1381.97 -1574.86 1253.86
-1381.95 -1575.01 1255.77
-1381.95 -1575.05 1257.64
-1381.9301 -1575.27 1260.5
-1381.8199 -1576.4399 1277.66
-1381.8101 -1576.52 1280.48
-1381.8 -1576.64 1282.39
-1381.66 -1578.13 1302.58
-1381.5699 -1579.11 1317.97
-1381.5601 -1579.2 1319.89
-1381.55 -1579.34 1321.83
-1381.53 -1579.5699 1324.74
-1381.51 -1579.71 1326.6801
-1381.5 -1579.83 1328.62
-1381.49 -1579.91 1330.53
-1381.41 -1580.8199 1348.85
-1381.39 -1581.03 1350.83
-1381.37 -1581.23 1352.8101
-1381.37 -1581.26 1354.72
-1381.36 -1581.37 1356.66
-1381.36 -1581.3101 1358.53
-1381.33 -1581.6801 1360.59
-1381.3199 -1581.72 1362.5
-1381.3199 -1581.77 1364.42
-1381.3101 -1581.88 1366.37
-1381.29 -1582.12 1368.37
-1381.1801 -1583.25 1386.96
-1381.16 -1583.46 1388.96
-1381.15 -1583.59 1391.88
-1381.12 -1583.91 1394.89
-1381 -1585.17 1413.67
-1380.98 -1585.38 1417.61
-1380.9399 -1585.79 1422.61
-1380.9301 -1585.9301 1424.6
-1383.63 -1567.45 581.84198
-1383.63 -1567.47 583.49799
-1383.63 -1567.45 585.16302
-1383.63 -1567.39 586.841
-1383.65 -1567.22 589.37799
-1383.64 -1567.28 591.02301
-1383.66 -1567.09 592.73901
-1383.67 -1567.02 594.41998
-1383.6801 -1566.9 596.94702
-1383.6899 -1566.79 598.64001
-1383.6801 -1566.83 600.29199
-1383.6899 -1566.75 602.80701
-1383.7 -1566.64 604.50092
-1383.71 -1566.55 606.19299
-1383.71 -1566.5 607.867
-1383.71 -1566.52 609.526
-1383.72 -1566.4399 612.04498
-1383.73 -1566.3199 613.74298
-1383.74 -1566.22 616.26801
-1383.74 -1566.1899 618.77502
-1383.75 -1566.08 620.46802
-1383.75 -1566.01 622.15503
-1383.78 -1565.74 633.06702
-1383.78 -1565.67 634.75598
-1383.79 -1565.51 638.13501
-1383.8101 -1565.33 639.84998
-1383.8199 -1565.23 641.54797
-1383.8101 -1565.34 644.02698
-1383.85 -1564.9301 650.81598
-1383.84 -1564.96 652.47803
-1383.86 -1564.75 662.57501
-1383.86 -1564.77 664.245
-1383.87 -1564.65 666.78699
-1383.87 -1564.66 668.46002
-1383.89 -1564.4 671.03802
-1383.88 -1564.51 672.69
-1383.88 -1564.53 674.36108
-1383.89 -1564.42 676.90399
-1383.89 -1564.4 678.59003
-1383.89 -1564.42 680.26202
-1383.89 -1564.41 681.94598
-1383.91 -1564.17 683.677
-1383.9 -1564.29 685.33301
-1383.9 -1564.21 687.86798
-1383.92 -1564.0699 689.58002
-1383.91 -1564.17 691.242
-1383.9 -1564.21 692.91498
-1383.92 -1564.0699 694.62799
-1383.92 -1564.04 696.31598
-1383.92 -1564.0699 698.83698
-1383.9301 -1563.92 700.54797
-1383.9301 -1563.9399 702.23102
-1383.92 -1563.95 703.91302
-1383.9301 -1563.9301 705.60303
-1383.9301 -1563.9301 708.13397
-1383.9301 -1563.9 709.82501
-1383.9399 -1563.79 711.534
-1383.9301 -1563.88 713.20502
-1383.9399 -1563.8 714.90503
-1383.9399 -1563.78 716.59998
-1383.95 -1563.6899 719.14801
-1383.9399 -1563.74 720.828
-1383.95 -1563.66 722.53302
-1383.96 -1563.5699 725.08398
-1383.97 -1563.4399 726.79498
-1383.96 -1563.5699 728.466
-1383.97 -1563.42 731.02802
-1383.97 -1563.4301 732.71899
-1383.98 -1563.33 734.42902
-1384 -1563.11 737.00299
-1383.99 -1563.12 738.69202
-1384 -1563.05 740.39801
-1384.01 -1562.98 742.95001
-1384.02 -1562.88 745.508
-1384.02 -1562.84 747.20898
-1384.02 -1562.84 749.75299
-1384.01 -1562.9 751.44202
-1384.01 -1562.88 753.13898
-1384.01 -1562.86 754.83899
-1384.02 -1562.8199 757.39301
-1384.01 -1562.9 759.08002
-1384.02 -1562.85 761.63501
-1384.03 -1562.73 763.35101
-1384.04 -1562.6 765.06799
-1384.04 -1562.62 767.617
-1384.05 -1562.4301 777.85101
-1384.0601 -1562.28 785.53699
-1384.0601 -1562.29 787.24103
-1384.0699 -1562.1899 788.95599
-1384.0699 -1562.1801 790.66498
-1384.09 -1561.96 794.10101
-1384.1 -1561.85 797.52698
-1384.11 -1561.76 799.24402
-1384.12 -1561.58 806.09698
-1384.13 -1561.5 818.93799
-1384.08 -1561.9301 869.65503
-1384.08 -1561.99 871.38098
-1384.08 -1561.95 873.11102
-1384.08 -1561.97 874.84003
-1384.08 -1561.98 879.16302
-1384.0699 -1561.99 883.48999
-1384.0699 -1562.04 886.086
-1384.0699 -1562.04 887.82001
-1384.0601 -1562.15 890.41699
-1384.05 -1562.25 899.95801
-1384.05 -1562.1899 903.43201
-1384.05 -1562.22 905.16901
-1384.04 -1562.29 906.90698
-1384.04 -1562.34 908.646
-1384.02 -1562.52 918.21997
-1384.02 -1562.59 919.96301
-1384.02 -1562.53 921.70398
-1384.02 -1562.53 923.448
-1384.01 -1562.63 925.19299
-1384.01 -1562.65 926.93799
-1384.01 -1562.66 928.68201
-1384 -1562.77 930.43103
-1384.01 -1562.65 933.04602
-1384 -1562.78 935.66998
-1383.99 -1562.87 937.41998
-1383.99 -1562.8 939.16602
-1383.99 -1562.88 941.79102
-1383.98 -1562.95 944.41803
-1383.98 -1562.91 946.16602
-1383.98 -1562.97 948.79498
-1383.96 -1563.11 969.85101
-1383.95 -1563.17 971.612
-1383.95 -1563.2 976.01001
-1383.95 -1563.24 978.65198
-1383.91 -1563.59 995.422
-1383.92 -1563.51 997.17999
-1383.92 -1563.58 998.95203
-1383.91 -1563.62 1000.72
-1383.9 -1563.71 1006.92
-1383.9 -1563.78 1008.69
-1383.89 -1563.79 1010.46
-1383.88 -1563.96 1012.25
-1383.83 -1564.4399 1030.03
-1383.84 -1564.41 1033.58
-1383.83 -1564.51 1036.26
-1383.83 -1564.52 1038.9301
-1383.8199 -1564.61 1041.61
-1383.8 -1564.73 1046.08
-1383.8 -1564.83 1047.87
-1383.79 -1564.86 1049.66
-1383.8 -1564.8199 1051.4399
-1383.78 -1565.01 1054.14
-1383.77 -1565.09 1055.9301
-1383.77 -1565.13 1057.72
-1383.76 -1565.16 1059.51
-1383.77 -1565.15 1061.3
-1383.75 -1565.3 1064
-1383.73 -1565.5 1069.39
-1383.73 -1565.5699 1071.1899
-1383.72 -1565.6 1072.99
-1383.72 -1565.65 1074.78
-1383.71 -1565.79 1076.6
-1383.6899 -1565.9301 1078.41
-1383.61 -1566.84 1097.42
-1383.6 -1566.95 1100.14
-1383.59 -1567.08 1101.97
-1383.58 -1567.13 1103.78
-1383.55 -1567.4399 1111.95
-1383.55 -1567.51 1113.76
-1383.54 -1567.61 1116.49
-1383.53 -1567.67 1118.3101
-1383.52 -1567.76 1120.13
-1383.52 -1567.84 1121.96
-1383.51 -1567.95 1123.79
-1383.51 -1567.92 1125.59
-1383.49 -1568.12 1128.34
-1383.49 -1568.12 1130.16
-1383.48 -1568.1899 1131.98
-1383.47 -1568.33 1133.8199
-1383.3101 -1570.05 1177.89
-1383.29 -1570.28 1179.77
-1383.28 -1570.34 1181.62
-1383.28 -1570.41 1183.46
-1383.27 -1570.53 1185.3199
-1383.25 -1570.72 1187.21
-1383.02 -1573.24 1225.6
-1383.01 -1573.29 1227.46
-1382.99 -1573.52 1230.3
-1382.98 -1573.65 1232.1801
-1382.97 -1573.73 1234.0601
-1382.96 -1573.85 1235.9399
-1382.95 -1574.01 1237.84
-1382.8199 -1575.41 1262.41
-1382.8 -1575.59 1265.26
-1382.79 -1575.6801 1267.15
-1382.78 -1575.8 1269.05
-1382.77 -1575.97 1270.97
-1382.76 -1576.08 1272.88
-1382.75 -1576.1801 1274.77
-1382.6899 -1576.83 1284.33
-1382.6801 -1576.86 1286.21
-1382.67 -1577.01 1288.13
-1382.66 -1577.17 1291
-1382.63 -1577.45 1293.9
-1382.61 -1577.63 1295.84
-1382.6 -1577.77 1298.7
-1382.58 -1577.95 1300.64
-1382.55 -1578.3101 1305.47
-1382.55 -1578.36 1307.36
-1382.53 -1578.53 1309.3
-1382.52 -1578.62 1311.21
-1382.51 -1578.78 1313.15
-1382.49 -1579 1316.0601
-1382.39 -1580.0699 1332.49
-1382.38 -1580.2 1334.4301
-1382.38 -1580.22 1337.27
-1382.36 -1580.37 1339.22
-1382.35 -1580.53 1341.17
-1382.34 -1580.63 1343.11
-1382.33 -1580.76 1345.05
-1382.3199 -1580.86 1346.99
-1382.2 -1582.14 1370.29
-1382.1801 -1582.38 1373.24
-1382.16 -1582.54 1375.22
-1382.15 -1582.7 1378.15
-1382.15 -1582.71 1380.05
-1382.12 -1582.99 1382.08
-1382.12 -1583.03 1384.96
-1382.03 -1584.02 1397.8199
-1382.01 -1584.1801 1399.8101
-1381.99 -1584.38 1401.8101
-1382 -1584.36 1403.72
-1381.97 -1584.6899 1406.74
-1381.96 -1584.75 1408.6801
-1381.9399 -1585.01 1411.6801
-1381.9 -1585.42 1415.71
-1381.88 -1585.65 1419.66
-1384.61 -1565.99 624.64398
-1384.61 -1565.9399 627.15601
-1384.62 -1565.86 628.84802
-1384.63 -1565.71 631.38702
-1384.66 -1565.4 636.47498
-1384.6801 -1565.14 646.56598
-1384.6801 -1565.1 649.08301
-1384.7 -1564.89 654.98901
-1384.71 -1564.83 656.67499
-1384.71 -1564.76 659.203
-1384.71 -1564.75 660.88098
-1384.9 -1562.59 769.30701
-1384.9 -1562.5601 771.01099
-1384.9 -1562.5699 772.711
-1384.9 -1562.5601 774.414
-1384.9 -1562.49 776.12799
-1384.91 -1562.4399 779.539
-1384.91 -1562.4399 782.09497
-1384.92 -1562.3199 783.81403
-1384.9399 -1562.09 792.36798
-1384.95 -1561.9399 795.79791
-1384.97 -1561.72 801.797
-1384.98 -1561.65 804.367
-1384.98 -1561.62 807.78802
-1384.99 -1561.53 810.36298
-1384.99 -1561.52 812.073
-1384.99 -1561.53 814.64099
-1384.99 -1561.49 816.35699
-1385 -1561.42 820.64398
-1384.99 -1561.53 822.349
-1384.99 -1561.52 824.065
-1384.99 -1561.48 825.78003
-1384.99 -1561.51 827.49298
-1384.99 -1561.49 829.21198
-1384.99 -1561.5 830.92603
-1384.98 -1561.59 832.63599
-1384.99 -1561.52 835.216
-1384.98 -1561.63 837.78601
-1384.97 -1561.73 839.49799
-1384.97 -1561.7 841.21899
-1384.97 -1561.65 842.94202
-1384.97 -1561.71 844.659
-1384.97 -1561.71 846.38
-1384.96 -1561.8101 848.95502
-1384.96 -1561.76 850.67999
-1384.97 -1561.74 852.40399
-1384.96 -1561.78 854.12402
-1384.96 -1561.8199 855.84497
-1384.96 -1561.8101 857.56897
-1384.96 -1561.8199 859.29199
-1384.96 -1561.79 861.01898
-1384.96 -1561.83 863.60602
-1384.96 -1561.84 866.19501
-1384.9399 -1562.04 867.91302
-1384.9399 -1561.97 877.42297
-1384.9399 -1562.04 881.74701
-1384.9301 -1562.13 893.008
-1384.9301 -1562.15 895.60999
-1384.92 -1562.2 897.34491
-1384.92 -1562.16 901.68597
-1384.91 -1562.36 910.37598
-1384.9 -1562.45 912.11609
-1384.9 -1562.46 913.85602
-1384.9 -1562.4 915.59698
-1384.85 -1563 951.41498
-1384.85 -1562.95 953.16498
-1384.85 -1562.96 955.79498
-1384.85 -1562.97 957.54797
-1384.84 -1563.03 959.30499
-1384.84 -1563.08 961.06201
-1384.84 -1563.05 963.69299
-1384.83 -1563.12 965.453
-1384.84 -1563.09 967.20697
-1384.84 -1563.1 973.35901
-1384.8199 -1563.24 980.40503
-1384.8199 -1563.29 982.16901
-1384.8199 -1563.29 984.81091
-1384.8101 -1563.37 987.46002
-1384.8101 -1563.42 990.10901
-1384.8 -1563.46 991.87598
-1384.8 -1563.52 993.64502
-1384.78 -1563.74 1003.38
-1384.78 -1563.75 1005.15
-1384.76 -1563.92 1014.01
-1384.76 -1563.9301 1015.78
-1384.75 -1564.04 1017.57
-1384.75 -1564.0699 1019.34
-1384.74 -1564.13 1021.12
-1384.73 -1564.25 1022.91
-1384.73 -1564.2 1024.6801
-1384.73 -1564.28 1026.46
-1384.72 -1564.38 1028.25
-1384.72 -1564.34 1031.79
-1384.6899 -1564.72 1044.29
-1384.63 -1565.3 1065.78
-1384.62 -1565.45 1067.59
-1384.5699 -1566.05 1081.12
-1384.55 -1566.25 1083.84
-1384.55 -1566.17 1085.62
-1384.54 -1566.28 1087.4399
-1384.53 -1566.4399 1090.16
-1384.52 -1566.5699 1091.98
-1384.51 -1566.6899 1094.6899
-1384.47 -1567.15 1105.58
-1384.46 -1567.26 1107.4
-1384.45 -1567.35 1110.12
-1384.36 -1568.3199 1136.54
-1384.35 -1568.47 1138.38
-1384.34 -1568.55 1141.12
-1384.33 -1568.67 1142.96
-1384.33 -1568.7 1144.78
-1384.3199 -1568.8 1146.62
-1384.3101 -1568.86 1148.45
-1384.3101 -1568.88 1150.27
-1384.3 -1568.95 1152.11
-1384.3 -1569.02 1153.9399
-1384.28 -1569.22 1156.72
-1384.28 -1569.24 1158.54
-1384.26 -1569.39 1161.3101
-1384.26 -1569.4301 1164.05
-1384.25 -1569.5699 1165.91
-1384.23 -1569.7 1167.76
-1384.23 -1569.77 1170.51
-1384.22 -1569.91 1173.29
-1384.2 -1570.05 1175.15
-1384.14 -1570.76 1189.05
-1384.13 -1570.87 1190.91
-1384.12 -1570.97 1192.77
-1384.1 -1571.14 1194.64
-1384.1 -1571.2 1196.5
-1384.09 -1571.35 1198.37
-1384.08 -1571.46 1201.15
-1384.0601 -1571.67 1203.05
-1384.05 -1571.73 1204.9
-1384.02 -1572.14 1207.78
-1384.02 -1572.0601 1209.59
-1384 -1572.35 1212.4399
-1383.99 -1572.41 1214.29
-1383.97 -1572.63 1217.12
-1383.95 -1572.86 1219.03
-1383.96 -1572.8 1220.85
-1383.9399 -1572.95 1223.67
-1383.85 -1574.02 1239.7
-1383.83 -1574.25 1241.62
-1383.8101 -1574.4301 1244.46
-1383.8101 -1574.46 1246.3199
-1383.8 -1574.5601 1248.21
-1383.79 -1574.67 1250.09
-1383.78 -1574.79 1252.92
-1383.76 -1575.01 1255.77
-1383.75 -1575.09 1257.66
-1383.74 -1575.22 1260.49
-1383.64 -1576.29 1277.61
-1383.62 -1576.5601 1279.5699
-1383.61 -1576.66 1281.47
-1383.48 -1578.14 1303.53
-1383.39 -1579.1 1317.98
-1383.39 -1579.12 1319.87
-1383.37 -1579.36 1321.85
-1383.36 -1579.39 1323.74
-1383.34 -1579.65 1326.67
-1383.3199 -1579.84 1328.63
-1383.3199 -1579.91 1330.54
-1383.22 -1580.97 1349.88
-1383.2 -1581.22 1351.87
-1383.21 -1581.14 1353.74
-1383.1801 -1581.4 1355.74
-1383.1801 -1581.45 1358.61
-1383.16 -1581.6 1360.5699
-1383.16 -1581.6899 1362.5
-1383.16 -1581.6899 1364.4
-1383.14 -1581.86 1366.37
-1383.11 -1582.1899 1368.42
-1383.01 -1583.35 1387.97
-1382.99 -1583.5 1389.95
-1382.97 -1583.74 1391.97
-1382.97 -1583.8 1393.9
-1382.9399 -1584.0601 1395.9301
-1382.84 -1585.1801 1413.6899
-1382.8199 -1585.48 1417.67
-1382.79 -1585.78 1422.62
-1382.77 -1586.02 1424.66
-1385.33 -1567.49 582.62201
-1385.33 -1567.48 585.11499
-1385.35 -1567.26 587.66699
-1385.35 -1567.26 589.33002
-1385.35 -1567.25 590.99402
-1385.37 -1567 593.55499
-1385.38 -1566.9 596.07703
-1385.38 -1566.89 597.73999
-1385.39 -1566.79 599.43298
-1385.39 -1566.75 601.104
-1385.38 -1566.8199 602.745
-1385.39 -1566.72 604.43903
-1385.41 -1566.58 606.14301
-1385.41 -1566.59 607.80402
-1385.41 -1566.55 609.47699
-1385.4301 -1566.33 611.20398
-1385.42 -1566.4399 612.83801
-1385.4301 -1566.34 614.53003
-1385.45 -1566.12 617.08801
-1385.4399 -1566.2 618.73499
-1385.45 -1566.0601 620.43799
-1385.45 -1566.04 622.10797
-1385.49 -1565.67 633.04901
-1385.5 -1565.52 634.75702
-1385.51 -1565.4399 638.95203
-1385.52 -1565.28 640.65997
-1385.52 -1565.29 643.16498
-1385.53 -1565.2 644.85901
-1385.54 -1565.09 650.73999
-1385.55 -1564.99 653.27399
-1385.5699 -1564.72 663.383
-1385.5699 -1564.73 665.89398
-1385.58 -1564.59 668.44202
-1385.58 -1564.5601 670.12598
-1385.59 -1564.47 671.82501
-1385.59 -1564.47 674.341
-1385.6 -1564.42 676.87091
-1385.6 -1564.41 678.55298
-1385.6 -1564.41 680.23102
-1385.61 -1564.28 682.77698
-1385.61 -1564.24 684.46802
-1385.61 -1564.3 686.97601
-1385.62 -1564.1899 689.52301
-1385.62 -1564.1801 691.20502
-1385.63 -1564.05 692.91498
-1385.63 -1564.0699 694.59399
-1385.63 -1564.03 696.28601
-1385.62 -1564.1 697.95697
-1385.64 -1563.95 700.51099
-1385.63 -1564.02 702.18201
-1385.63 -1563.98 703.87598
-1385.63 -1564.04 705.54901
-1385.65 -1563.8199 707.27698
-1385.64 -1563.9 709.79199
-1385.64 -1563.95 711.47101
-1385.64 -1563.88 713.17102
-1385.65 -1563.8199 714.87201
-1385.65 -1563.85 716.55603
-1385.66 -1563.6899 719.11499
-1385.65 -1563.77 721.63501
-1385.67 -1563.6 724.20099
-1385.67 -1563.59 725.89502
-1385.6801 -1563.49 728.44702
-1385.6899 -1563.29 731.01801
-1385.6899 -1563.37 732.698
-1385.7 -1563.23 735.25897
-1385.71 -1563.15 736.96503
-1385.71 -1563.15 739.505
-1385.72 -1563.01 741.22101
-1385.72 -1562.99 742.91803
-1385.73 -1562.9 745.474
-1385.73 -1562.92 747.16699
-1385.73 -1562.9301 749.71002
-1385.73 -1562.91 752.25702
-1385.72 -1562.96 754.79602
-1385.72 -1562.9399 756.49701
-1385.72 -1562.9399 758.19598
-1385.73 -1562.91 759.90002
-1385.75 -1562.6899 762.47699
-1385.75 -1562.67 764.17999
-1385.76 -1562.54 765.896
-1385.76 -1562.58 767.59302
-1385.77 -1562.42 777.82501
-1385.78 -1562.33 785.505
-1385.79 -1562.22 787.22101
-1385.79 -1562.1801 788.93201
-1385.79 -1562.15 790.64203
-1385.8101 -1562.02 794.06897
-1385.8199 -1561.83 798.35699
-1385.83 -1561.77 800.07001
-1385.84 -1561.64 806.06403
-1385.86 -1561.39 818.06403
-1385.8199 -1561.88 869.63501
-1385.8199 -1561.88 872.22699
-1385.8 -1562.03 873.95203
-1385.8 -1562.01 875.68201
-1385.8 -1562.0699 879.13898
-1385.8101 -1562 883.46899
-1385.8 -1562.0699 886.065
-1385.8 -1562.11 888.664
-1385.8 -1562.0699 890.39801
-1385.79 -1562.2 899.93903
-1385.79 -1562.22 904.28101
-1385.78 -1562.27 906.01898
-1385.78 -1562.3199 907.758
-1385.76 -1562.5 917.33002
-1385.76 -1562.53 919.94397
-1385.76 -1562.46 921.685
-1385.76 -1562.54 923.42999
-1385.75 -1562.66 926.04797
-1385.75 -1562.67 927.79303
-1385.74 -1562.74 930.41199
-1385.74 -1562.71 932.15698
-1385.74 -1562.77 933.90503
-1385.73 -1562.8101 935.65399
-1385.74 -1562.78 938.27399
-1385.73 -1562.86 940.89899
-1385.73 -1562.87 942.64899
-1385.72 -1562.97 945.27698
-1385.72 -1562.91 947.02502
-1385.72 -1562.98 948.77899
-1385.71 -1563.13 968.95898
-1385.7 -1563.17 970.71899
-1385.7 -1563.24 975.99902
-1385.7 -1563.1899 977.75409
-1385.67 -1563.5601 996.28998
-1385.67 -1563.5601 998.93799
-1385.66 -1563.64 1000.71
-1385.65 -1563.78 1007.8
-1385.65 -1563.8 1010.45
-1385.64 -1563.92 1012.23
-1385.59 -1564.4 1030.02
-1385.6 -1564.37 1033.5699
-1385.59 -1564.49 1035.36
-1385.58 -1564.58 1037.15
-1385.5699 -1564.62 1038.9301
-1385.5699 -1564.62 1040.71
-1385.58 -1564.59 1042.49
-1385.5601 -1564.76 1046.0699
-1385.5699 -1564.71 1047.85
-1385.5601 -1564.8 1049.64
-1385.55 -1564.92 1051.4399
-1385.55 -1564.9399 1053.23
-1385.54 -1565.05 1055.03
-1385.54 -1565.03 1056.8101
-1385.53 -1565.17 1059.51
-1385.52 -1565.25 1061.3
-1385.52 -1565.27 1063.99
-1385.5 -1565.51 1069.39
-1385.49 -1565.6 1072.08
-1385.49 -1565.58 1073.87
-1385.47 -1565.78 1076.59
-1385.46 -1565.9399 1079.3
-1385.38 -1566.87 1097.42
-1385.37 -1566.9399 1100.13
-1385.36 -1567.02 1101.95
-1385.36 -1567.08 1103.76
-1385.33 -1567.39 1112.84
-1385.3199 -1567.53 1114.67
-1385.3101 -1567.64 1116.49
-1385.3 -1567.71 1118.3101
-1385.3 -1567.78 1120.13
-1385.28 -1567.92 1121.97
-1385.29 -1567.88 1123.77
-1385.27 -1568.02 1125.61
-1385.27 -1568.0601 1127.4301
-1385.27 -1568.05 1129.23
-1385.26 -1568.21 1131.08
-1385.26 -1568.24 1132.89
-1385.25 -1568.3 1134.72
-1385.09 -1570.12 1177.91
-1385.08 -1570.25 1179.77
-1385.0699 -1570.35 1181.62
-1385.0601 -1570.4399 1183.47
-1385.05 -1570.62 1185.35
-1385.04 -1570.6801 1187.1899
-1384.8199 -1573.2 1225.59
-1384.8199 -1573.23 1227.4399
-1384.8 -1573.45 1230.28
-1384.78 -1573.58 1232.17
-1384.78 -1573.6801 1234.04
-1384.76 -1573.92 1236.89
-1384.63 -1575.38 1262.4
-1384.62 -1575.47 1264.3
-1384.61 -1575.58 1266.1899
-1384.59 -1575.78 1269.05
-1384.58 -1575.96 1270.98
-1384.5699 -1576.03 1272.86
-1384.55 -1576.26 1275.74
-1384.51 -1576.73 1283.37
-1384.49 -1576.88 1285.29
-1384.49 -1576.99 1287.2
-1384.47 -1577.17 1289.13
-1384.46 -1577.3101 1291.99
-1384.4399 -1577.53 1293.9399
-1384.4301 -1577.59 1295.83
-1384.42 -1577.75 1297.77
-1384.4 -1577.98 1300.66
-1384.37 -1578.3199 1305.48
-1384.36 -1578.46 1307.41
-1384.35 -1578.51 1309.3
-1384.34 -1578.66 1312.1801
-1384.3199 -1578.86 1315.0699
-1384.22 -1580.03 1333.4301
-1384.2 -1580.28 1336.36
-1384.1899 -1580.37 1339.23
-1384.1801 -1580.48 1342.11
-1384.16 -1580.72 1344.1
-1384.15 -1580.77 1346.01
-1384.14 -1580.91 1347.96
-1384.03 -1582.15 1371.26
-1384.01 -1582.4 1374.22
-1383.99 -1582.6 1377.16
-1383.97 -1582.8 1379.15
-1383.97 -1582.89 1381.1
-1383.95 -1583.1 1383.1
-1383.9301 -1583.24 1385.0699
-1383.87 -1584.02 1397.84
-1383.86 -1584.11 1399.79
-1383.84 -1584.33 1401.8
-1383.84 -1584.35 1403.73
-1383.8101 -1584.6899 1405.8
-1383.8199 -1584.6 1407.67
-1383.79 -1584.92 1409.74
-1383.77 -1585.08 1411.74
-1383.74 -1585.4301 1415.74
-1383.73 -1585.6 1420.62
-1386.3101 -1566.01 623.76501
-1386.3199 -1565.85 625.474
-1386.3199 -1565.92 627.125
-1386.3199 -1565.91 628.797
-1386.34 -1565.6801 630.52197
-1386.35 -1565.55 636.40002
-1386.39 -1565.13 647.36603
-1386.39 -1565.05 649.05701
-1386.41 -1564.91 654.948
-1386.41 -1564.88 657.466
-1386.42 -1564.79 660
-1386.41 -1564.8101 661.67102
-1386.62 -1562.53 770.13501
-1386.63 -1562.45 771.84698
-1386.62 -1562.52 773.54199
-1386.62 -1562.5699 775.23798
-1386.63 -1562.46 779.50891
-1386.64 -1562.34 782.08099
-1386.64 -1562.33 783.78601
-1386.66 -1562.0601 792.34497
-1386.6801 -1561.8199 795.78302
-1386.7 -1561.6801 802.62909
-1386.7 -1561.6801 804.34003
-1386.71 -1561.55 807.77002
-1386.71 -1561.58 810.33398
-1386.71 -1561.55 812.047
-1386.72 -1561.45 814.62299
-1386.72 -1561.4 816.33801
-1386.72 -1561.45 820.617
-1386.72 -1561.45 823.18701
-1386.71 -1561.46 824.90002
-1386.72 -1561.45 826.61499
-1386.72 -1561.45 829.18903
-1386.71 -1561.52 831.75897
-1386.71 -1561.54 833.47302
-1386.71 -1561.52 835.19299
-1386.71 -1561.5699 837.76599
-1386.7 -1561.7 839.47699
-1386.7 -1561.66 841.19702
-1386.7 -1561.67 842.91699
-1386.7 -1561.6801 844.63702
-1386.6899 -1561.75 846.35309
-1386.6899 -1561.79 848.93402
-1386.6899 -1561.79 850.65601
-1386.6899 -1561.79 852.37799
-1386.6899 -1561.77 854.10199
-1386.6899 -1561.8 855.823
-1386.6899 -1561.79 857.547
-1386.6899 -1561.77 859.27301
-1386.6899 -1561.83 860.99591
-1386.6801 -1561.85 862.71899
-1386.6899 -1561.8101 864.44702
-1386.6801 -1561.9399 866.16901
-1386.6801 -1561.88 867.89801
-1386.6801 -1561.95 877.40192
-1386.67 -1562.01 881.72699
-1386.66 -1562.15 892.12
-1386.67 -1562.0699 893.85602
-1386.66 -1562.1899 896.45697
-1386.66 -1562.16 898.19299
-1386.66 -1562.2 901.66498
-1386.64 -1562.34 909.487
-1386.64 -1562.4301 911.22699
-1386.63 -1562.49 913.83801
-1386.63 -1562.47 915.57898
-1386.59 -1562.99 950.52301
-1386.6 -1562.91 953.14697
-1386.59 -1563.02 955.78198
-1386.59 -1562.99 957.534
-1386.59 -1563 959.28802
-1386.59 -1563.05 961.04498
-1386.58 -1563.0699 962.802
-1386.59 -1563.04 964.55499
-1386.59 -1563.05 967.19
-1386.58 -1563.17 972.46899
-1386.58 -1563.11 974.224
-1386.58 -1563.16 980.38501
-1386.5699 -1563.26 982.15399
-1386.5601 -1563.36 983.922
-1386.5699 -1563.29 985.67902
-1386.5601 -1563.41 987.45001
-1386.55 -1563.5 989.22101
-1386.55 -1563.47 990.98102
-1386.55 -1563.45 992.74402
-1386.54 -1563.53 994.51501
-1386.54 -1563.63 1002.47
-1386.54 -1563.65 1004.24
-1386.52 -1563.8 1006.02
-1386.51 -1563.99 1014.89
-1386.5 -1564.0601 1017.56
-1386.5 -1564.0699 1019.33
-1386.49 -1564.1899 1022
-1386.49 -1564.25 1024.67
-1386.48 -1564.25 1026.45
-1386.48 -1564.3 1028.23
-1386.47 -1564.42 1031.79
-1386.4399 -1564.76 1044.29
-1386.39 -1565.39 1065.79
-1386.39 -1565.37 1067.5699
-1386.34 -1566 1082
-1386.3199 -1566.1899 1084.72
-1386.3 -1566.38 1087.45
-1386.3 -1566.4399 1089.25
-1386.29 -1566.5 1091.0601
-1386.29 -1566.5699 1093.77
-1386.27 -1566.79 1095.6
-1386.24 -1567.17 1105.58
-1386.24 -1567.16 1107.38
-1386.22 -1567.34 1109.21
-1386.22 -1567.39 1111.03
-1386.13 -1568.4301 1136.5601
-1386.12 -1568.51 1138.39
-1386.12 -1568.53 1140.21
-1386.11 -1568.6 1142.03
-1386.11 -1568.61 1143.85
-1386.1 -1568.77 1145.7
-1386.1 -1568.78 1147.52
-1386.09 -1568.9301 1150.28
-1386.08 -1569 1152.11
-1386.08 -1569.02 1153.9399
-1386.0601 -1569.21 1155.8
-1386.0699 -1569.15 1157.61
-1386.05 -1569.3 1159.46
-1386.05 -1569.36 1161.3
-1386.04 -1569.39 1163.13
-1386.04 -1569.5 1165.89
-1386.02 -1569.6899 1168.67
-1386.01 -1569.83 1171.4399
-1386 -1569.96 1173.3
-1385.99 -1570.08 1176.0699
-1385.9301 -1570.78 1189.05
-1385.92 -1570.89 1190.91
-1385.91 -1570.95 1192.76
-1385.9 -1571.0699 1194.63
-1385.89 -1571.25 1197.4301
-1385.87 -1571.47 1200.24
-1385.86 -1571.6 1202.11
-1385.85 -1571.72 1203.98
-1385.83 -1571.87 1205.86
-1385.8199 -1572.0601 1208.67
-1385.8199 -1572.05 1210.51
-1385.8 -1572.3 1212.42
-1385.79 -1572.38 1214.29
-1385.77 -1572.63 1216.2
-1385.77 -1572.64 1218.05
-1385.74 -1572.88 1219.96
-1385.74 -1572.98 1221.83
-1385.73 -1573.09 1223.71
-1385.65 -1573.99 1238.77
-1385.64 -1574.13 1240.66
-1385.62 -1574.3101 1242.5699
-1385.62 -1574.39 1244.45
-1385.61 -1574.5 1247.27
-1385.59 -1574.65 1249.17
-1385.59 -1574.6899 1251.04
-1385.58 -1574.8199 1252.9301
-1385.5699 -1574.95 1254.83
-1385.55 -1575.13 1256.75
-1385.55 -1575.2 1259.5601
-1385.4301 -1576.52 1278.63
-1385.4301 -1576.5699 1280.52
-1385.29 -1578.11 1303.53
-1385.21 -1579.13 1318
-1385.2 -1579.26 1320.88
-1385.1801 -1579.47 1322.84
-1385.17 -1579.61 1324.78
-1385.16 -1579.74 1327.66
-1385.15 -1579.8 1330.51
-1385.04 -1581.0699 1350.88
-1385.03 -1581.1899 1352.8199
-1385.02 -1581.27 1354.75
-1385.02 -1581.35 1356.6801
-1385.01 -1581.4 1358.6
-1385.01 -1581.46 1360.52
-1384.99 -1581.6899 1362.52
-1384.98 -1581.78 1364.45
-1384.97 -1581.9 1366.4
-1384.96 -1582.02 1369.3101
-1384.85 -1583.29 1387.96
-1384.8199 -1583.67 1390.99
-1384.8101 -1583.72 1392.9301
-1384.8 -1583.9 1394.92
-1384.6801 -1585.2 1413.72
-1384.66 -1585.4301 1417.67
-1384.63 -1585.87 1422.6801
-1384.62 -1585.9 1424.62
-1387.04 -1567.39 582.612
-1387.03 -1567.49 584.23901
-1387.03 -1567.48 585.90302
-1387.04 -1567.38 587.59399
-1387.05 -1567.25 589.28998
-1387.0601 -1567.11 591.823
-1387.0601 -1567.11 593.48401
-1387.0601 -1567.13 595.13702
-1387.0699 -1567.05 596.823
-1387.08 -1566.87 598.53802
-1387.09 -1566.8101 600.21802
-1387.09 -1566.78 602.71997
-1387.1 -1566.72 605.22998
-1387.12 -1566.48 607.797
-1387.12 -1566.42 609.47809
-1387.13 -1566.38 611.98401
-1387.13 -1566.3199 613.66803
-1387.13 -1566.37 615.31598
-1387.14 -1566.26 617.013
-1387.14 -1566.25 618.68298
-1387.15 -1566.12 620.38098
-1387.16 -1566.04 622.06891
-1387.1801 -1565.74 632.992
-1387.2 -1565.58 634.70502
-1387.2 -1565.53 638.05701
-1387.21 -1565.4301 639.75
-1387.22 -1565.37 641.43597
-1387.22 -1565.29 643.12799
-1387.23 -1565.27 645.64203
-1387.25 -1564.97 650.73102
-1387.25 -1565.02 652.39203
-1387.27 -1564.76 663.33698
-1387.29 -1564.6 665.89001
-1387.29 -1564.59 668.409
-1387.3 -1564.5 670.94299
-1387.29 -1564.5699 672.60602
-1387.3 -1564.5 674.29999
-1387.29 -1564.5601 675.966
-1387.3101 -1564.4 678.51898
-1387.3101 -1564.35 680.20801
-1387.3199 -1564.2 681.91998
-1387.3199 -1564.24 683.59198
-1387.3199 -1564.21 685.28003
-1387.33 -1564.17 686.96997
-1387.33 -1564.12 689.50201
-1387.33 -1564.17 691.17603
-1387.33 -1564.12 692.867
-1387.34 -1564.08 694.56
-1387.34 -1564.0699 696.24597
-1387.34 -1564.08 698.76801
-1387.35 -1563.92 700.48499
-1387.34 -1564.04 702.146
-1387.35 -1563.9399 703.84998
-1387.34 -1564.02 705.52197
-1387.35 -1563.95 707.22101
-1387.35 -1563.9399 708.909
-1387.36 -1563.87 710.60999
-1387.36 -1563.79 712.31299
-1387.36 -1563.8199 713.992
-1387.36 -1563.8199 716.52502
-1387.37 -1563.73 719.07709
-1387.36 -1563.8101 720.75201
-1387.37 -1563.71 723.30499
-1387.38 -1563.65 725.00702
-1387.38 -1563.59 726.70801
-1387.39 -1563.53 728.40991
-1387.39 -1563.51 730.10602
-1387.4 -1563.41 732.65997
-1387.41 -1563.3199 734.36603
-1387.41 -1563.27 736.06897
-1387.41 -1563.3 738.60309
-1387.4399 -1562.98 741.19598
-1387.4399 -1562.96 742.89398
-1387.4301 -1563.0699 745.41803
-1387.4301 -1563.03 747.11902
-1387.4399 -1563 748.823
-1387.4399 -1562.99 751.367
-1387.4399 -1562.98 753.914
-1387.4399 -1562.9301 756.46997
-1387.4399 -1563 758.15802
-1387.45 -1562.83 759.88098
-1387.46 -1562.73 761.59399
-1387.46 -1562.78 763.28699
-1387.47 -1562.6 765.86102
-1387.48 -1562.55 768.41901
-1387.48 -1562.47 776.93903
-1387.5 -1562.34 786.32703
-1387.51 -1562.22 788.90002
-1387.51 -1562.14 790.61499
-1387.53 -1562 794.04401
-1387.55 -1561.78 798.336
-1387.55 -1561.7 800.90601
-1387.5601 -1561.65 806.03699
-1387.59 -1561.33 818.04309
-1387.54 -1562 869.61102
-1387.54 -1562.02 871.33698
-1387.54 -1561.95 873.06799
-1387.54 -1562.02 874.79498
-1387.54 -1562.01 879.98499
-1387.54 -1562.03 884.31403
-1387.53 -1562.0601 886.04498
-1387.53 -1562.0699 887.77802
-1387.53 -1562.13 889.51001
-1387.52 -1562.21 899.91901
-1387.52 -1562.29 904.26202
-1387.52 -1562.26 906
-1387.52 -1562.27 907.73901
-1387.5 -1562.54 917.31201
-1387.5 -1562.55 919.05499
-1387.5 -1562.5 921.66809
-1387.5 -1562.53 923.41101
-1387.49 -1562.65 926.03003
-1387.48 -1562.7 927.776
-1387.48 -1562.74 929.52197
-1387.48 -1562.77 931.26801
-1387.48 -1562.77 933.01501
-1387.48 -1562.73 934.76099
-1387.47 -1562.84 936.51099
-1387.48 -1562.8 938.258
-1387.48 -1562.8199 940.88098
-1387.48 -1562.8101 942.63
-1387.47 -1562.87 944.38202
-1387.47 -1562.91 946.13397
-1387.46 -1563.01 948.76398
-1387.46 -1563.05 969.81799
-1387.4399 -1563.22 975.98297
-1387.45 -1563.2 977.74103
-1387.41 -1563.61 996.28101
-1387.42 -1563.5601 998.04199
-1387.42 -1563.5601 1000.69
-1387.41 -1563.73 1007.78
-1387.41 -1563.7 1010.43
-1387.39 -1563.96 1013.11
-1387.35 -1564.35 1030
-1387.35 -1564.4399 1033.5699
-1387.35 -1564.45 1035.35
-1387.34 -1564.58 1037.14
-1387.34 -1564.58 1038.92
-1387.33 -1564.62 1040.7
-1387.33 -1564.66 1042.49
-1387.3199 -1564.83 1046.96
-1387.3199 -1564.83 1049.64
-1387.3101 -1564.9301 1052.3199
-1387.3 -1564.99 1054.12
-1387.3 -1565.03 1055.91
-1387.3 -1565.0699 1057.7
-1387.3 -1565.08 1059.48
-1387.28 -1565.22 1061.29
-1387.28 -1565.3101 1063.09
-1387.26 -1565.45 1069.37
-1387.26 -1565.52 1071.17
-1387.25 -1565.63 1072.98
-1387.25 -1565.6801 1074.78
-1387.24 -1565.74 1076.58
-1387.23 -1565.83 1078.38
-1387.23 -1565.87 1080.1801
-1387.15 -1566.87 1098.3199
-1387.14 -1566.96 1100.13
-1387.14 -1567 1101.9399
-1387.12 -1567.1801 1103.77
-1387.09 -1567.55 1113.76
-1387.08 -1567.66 1115.59
-1387.08 -1567.65 1117.39
-1387.08 -1567.73 1119.22
-1387.0699 -1567.84 1121.05
-1387.0601 -1567.92 1122.87
-1387.05 -1568.01 1125.6
-1387.05 -1568.08 1127.42
-1387.04 -1568.11 1129.24
-1387.04 -1568.2 1131.0699
-1387.03 -1568.21 1132.88
-1387.03 -1568.3101 1134.72
-1386.87 -1570.22 1177.9301
-1386.86 -1570.37 1180.71
-1386.85 -1570.46 1183.48
-1386.83 -1570.63 1185.35
-1386.83 -1570.71 1187.2
-1386.62 -1573.17 1225.58
-1386.61 -1573.34 1227.48
-1386.6 -1573.4301 1230.28
-1386.58 -1573.64 1232.1899
-1386.58 -1573.6899 1234.05
-1386.5601 -1573.92 1236.9
-1386.4301 -1575.39 1261.48
-1386.4301 -1575.48 1263.37
-1386.41 -1575.66 1265.29
-1386.41 -1575.72 1267.1801
-1386.39 -1575.92 1270.04
-1386.38 -1576.05 1272.88
-1386.36 -1576.27 1274.8199
-1386.35 -1576.4 1276.73
-1386.3199 -1576.76 1283.39
-1386.3101 -1576.9 1285.3101
-1386.3 -1577.01 1287.22
-1386.29 -1577.14 1289.13
-1386.27 -1577.36 1292.02
-1386.27 -1577.37 1294.83
-1386.24 -1577.7 1297.76
-1386.23 -1577.84 1299.6801
-1386.21 -1578.01 1301.62
-1386.1899 -1578.3 1305.48
-1386.1801 -1578.39 1307.39
-1386.16 -1578.61 1309.35
-1386.16 -1578.66 1312.1899
-1386.14 -1578.89 1314.16
-1386.13 -1579.01 1316.08
-1386.04 -1580.0699 1333.45
-1386.02 -1580.33 1336.39
-1386.01 -1580.38 1339.24
-1386 -1580.55 1342.15
-1385.99 -1580.7 1344.11
-1385.97 -1580.83 1346.05
-1385.97 -1580.9399 1347.99
-1385.86 -1582.1801 1371.28
-1385.84 -1582.41 1373.28
-1385.83 -1582.55 1375.25
-1385.8199 -1582.65 1378.15
-1385.8 -1582.91 1381.12
-1385.8 -1582.97 1383.05
-1385.77 -1583.27 1385.1
-1385.71 -1584.02 1397.85
-1385.7 -1584.15 1399.8199
-1385.67 -1584.5 1402.86
-1385.66 -1584.62 1404.83
-1385.65 -1584.6899 1407.74
-1385.63 -1584.98 1409.79
-1385.62 -1585.03 1411.73
-1385.58 -1585.51 1415.79
-1385.5699 -1585.67 1420.67
-1388.02 -1565.96 624.57391
-1388.02 -1565.96 626.24298
-1388.03 -1565.8 627.95099
-1388.04 -1565.71 629.64301
-1388.04 -1565.71 631.31097
-1388.0601 -1565.49 636.37799
-1388.09 -1565.13 647.328
-1388.09 -1565.15 648.995
-1388.11 -1564.9301 654.90503
-1388.12 -1564.84 657.43909
-1388.12 -1564.8199 659.95502
-1388.13 -1564.72 661.65503
-1388.34 -1562.52 770.10901
-1388.34 -1562.55 771.80701
-1388.34 -1562.46 773.52197
-1388.34 -1562.53 775.21301
-1388.35 -1562.42 778.63501
-1388.35 -1562.45 781.18701
-1388.35 -1562.4 782.89697
-1388.36 -1562.34 784.60901
-1388.38 -1562.04 792.31891
-1388.4 -1561.9 796.60303
-1388.42 -1561.6899 802.60303
-1388.41 -1561.72 804.30902
-1388.42 -1561.6 807.73999
-1388.4301 -1561.5699 809.45203
-1388.4301 -1561.5699 812.01801
-1388.4399 -1561.47 813.73999
-1388.4399 -1561.45 815.45398
-1388.4399 -1561.45 820.59198
-1388.4399 -1561.49 822.302
-1388.4399 -1561.42 824.021
-1388.4399 -1561.49 826.58899
-1388.4399 -1561.4301 828.30798
-1388.4301 -1561.55 830.01501
-1388.4301 -1561.61 831.72803
-1388.4399 -1561.54 834.30902
-1388.4399 -1561.53 836.02698
-1388.4301 -1561.62 837.73901
-1388.4301 -1561.64 840.31598
-1388.4301 -1561.59 842.03802
-1388.42 -1561.74 843.75
-1388.4301 -1561.66 846.33398
-1388.42 -1561.74 848.05298
-1388.42 -1561.76 849.77301
-1388.42 -1561.72 851.49701
-1388.42 -1561.77 853.21698
-1388.42 -1561.78 854.94
-1388.41 -1561.87 856.659
-1388.42 -1561.8101 858.388
-1388.41 -1561.9 860.96997
-1388.41 -1561.9301 863.55701
-1388.41 -1561.9301 865.284
-1388.42 -1561.83 867.01501
-1388.4 -1561.99 877.38098
-1388.4 -1562.04 881.70599
-1388.4 -1562.12 892.09998
-1388.4 -1562.08 893.83502
-1388.39 -1562.15 895.57001
-1388.39 -1562.1801 897.30603
-1388.39 -1562.1801 901.646
-1388.38 -1562.37 909.46802
-1388.38 -1562.39 911.20801
-1388.38 -1562.36 912.94897
-1388.37 -1562.4399 914.69
-1388.34 -1562.95 951.38098
-1388.34 -1562.96 954.01001
-1388.34 -1562.92 956.638
-1388.33 -1563.04 958.39801
-1388.33 -1563.04 960.15198
-1388.34 -1562.98 961.90399
-1388.33 -1563.05 963.66302
-1388.34 -1563 966.29401
-1388.33 -1563.03 968.052
-1388.3199 -1563.15 972.45398
-1388.33 -1563.11 974.20898
-1388.3199 -1563.1899 979.49298
-1388.3199 -1563.27 981.26001
-1388.3101 -1563.3101 983.02399
-1388.3199 -1563.28 985.66498
-1388.3101 -1563.34 987.43103
-1388.3101 -1563.42 989.20099
-1388.3 -1563.45 990.96698
-1388.3 -1563.53 992.737
-1388.3 -1563.48 994.49799
-1388.29 -1563.59 1002.45
-1388.29 -1563.6801 1005.11
-1388.27 -1563.92 1015.76
-1388.25 -1564.11 1017.55
-1388.26 -1564.0601 1019.32
-1388.25 -1564.1801 1021.99
-1388.25 -1564.17 1023.76
-1388.24 -1564.29 1026.4399
-1388.23 -1564.36 1028.22
-1388.23 -1564.4301 1031.78
-1388.21 -1564.64 1044.26
-1388.16 -1565.3101 1064.87
-1388.15 -1565.4399 1067.58
-1388.1 -1566.04 1082
-1388.09 -1566.17 1084.71
-1388.08 -1566.3199 1087.4301
-1388.0699 -1566.42 1090.14
-1388.0601 -1566.5699 1092.86
-1388.05 -1566.6899 1094.6801
-1388.04 -1566.75 1096.49
-1388.01 -1567.11 1105.5601
-1388.01 -1567.2 1107.38
-1388 -1567.28 1109.2
-1387.98 -1567.48 1111.04
-1387.91 -1568.38 1137.45
-1387.91 -1568.4301 1139.27
-1387.9 -1568.5699 1142.02
-1387.89 -1568.6899 1144.77
-1387.88 -1568.76 1146.61
-1387.87 -1568.9399 1149.37
-1387.87 -1568.92 1151.1899
-1387.86 -1569.05 1153.9399
-1387.85 -1569.15 1155.79
-1387.84 -1569.29 1158.55
-1387.83 -1569.35 1160.38
-1387.83 -1569.41 1162.22
-1387.83 -1569.42 1164.04
-1387.8199 -1569.53 1165.9
-1387.8199 -1569.5699 1168.64
-1387.8 -1569.77 1170.51
-1387.79 -1569.83 1172.35
-1387.78 -1569.99 1174.22
-1387.77 -1570.11 1176.08
-1387.72 -1570.78 1189.97
-1387.7 -1571.01 1192.78
-1387.6899 -1571.14 1195.5699
-1387.6801 -1571.22 1197.42
-1387.67 -1571.37 1199.3
-1387.66 -1571.4399 1201.15
-1387.64 -1571.65 1203.05
-1387.64 -1571.74 1204.91
-1387.62 -1571.9301 1206.8
-1387.61 -1572.0601 1209.6
-1387.6 -1572.22 1211.48
-1387.58 -1572.45 1214.3101
-1387.5699 -1572.5699 1216.1899
-1387.5601 -1572.6899 1218.99
-1387.54 -1572.89 1220.89
-1387.53 -1573.01 1222.77
-1387.4399 -1574.14 1239.74
-1387.4399 -1574.1801 1241.61
-1387.4301 -1574.3101 1243.5
-1387.42 -1574.41 1245.39
-1387.41 -1574.53 1247.28
-1387.41 -1574.55 1249.14
-1387.39 -1574.76 1251.99
-1387.38 -1574.84 1253.87
-1387.37 -1575.04 1255.79
-1387.36 -1575.12 1257.6801
-1387.35 -1575.22 1259.5699
-1387.25 -1576.49 1279.5601
-1387.23 -1576.63 1281.48
-1387.11 -1578.11 1303.54
-1387.02 -1579.25 1319
-1387.02 -1579.29 1320.9
-1387.01 -1579.42 1322.83
-1386.99 -1579.66 1325.75
-1386.98 -1579.7 1327.65
-1386.97 -1579.86 1329.6
-1386.96 -1580.01 1331.55
-1386.87 -1581.02 1350.87
-1386.86 -1581.21 1353.79
-1386.85 -1581.35 1355.74
-1386.84 -1581.4399 1357.6801
-1386.83 -1581.5699 1359.63
-1386.8101 -1581.76 1361.61
-1386.8101 -1581.8199 1363.54
-1386.8 -1581.9301 1366.4301
-1386.79 -1582.05 1368.38
-1386.6801 -1583.42 1388.03
-1386.67 -1583.52 1390.95
-1386.65 -1583.74 1392.95
-1386.64 -1583.9 1395.89
-1386.53 -1585.24 1413.75
-1386.51 -1585.39 1417.67
-1386.48 -1585.86 1422.6899
-1386.47 -1585.91 1424.64
-1388.73 -1567.4301 582.55603
-1388.73 -1567.49 584.20099
-1388.75 -1567.26 586.75598
-1388.75 -1567.3 589.237
-1388.76 -1567.15 590.94
-1388.76 -1567.09 592.617
-1388.77 -1567.0601 595.11902
-1388.77 -1567 596.79498
-1388.79 -1566.8199 598.51398
-1388.79 -1566.85 600.16492
-1388.8 -1566.72 601.86499
-1388.8101 -1566.59 604.39801
-1388.8101 -1566.5699 606.06702
-1388.8199 -1566.5 607.75201
-1388.8199 -1566.48 609.422
-1388.83 -1566.4 611.10699
-1388.83 -1566.3199 612.79401
-1388.84 -1566.3 615.29602
-1388.84 -1566.3101 616.96198
-1388.86 -1566.0699 619.52197
-1388.86 -1566.0601 622.02698
-1388.89 -1565.76 632.948
-1388.9 -1565.61 634.65698
-1388.91 -1565.47 638.86902
-1388.92 -1565.39 640.56
-1388.92 -1565.38 643.06799
-1388.9399 -1565.21 644.78302
-1388.95 -1565.01 650.68597
-1388.96 -1565 652.36298
-1388.98 -1564.76 663.30298
-1388.99 -1564.6801 665.83801
-1388.99 -1564.66 667.51898
-1388.99 -1564.63 669.20099
-1389 -1564.55 670.896
-1389.01 -1564.42 673.44299
-1389 -1564.53 675.09802
-1389.01 -1564.45 676.79498
-1389.02 -1564.37 678.48798
-1389.02 -1564.37 681.01001
-1389.03 -1564.24 683.56
-1389.03 -1564.24 686.08002
-1389.04 -1564.16 687.77802
-1389.04 -1564.15 690.30499
-1389.04 -1564.16 692.828
-1389.05 -1563.99 695.38397
-1389.05 -1564 697.90698
-1389.0601 -1563.96 700.44202
-1389.0601 -1563.96 702.97198
-1389.0601 -1563.98 704.65399
-1389.0601 -1563.95 707.18903
-1389.0699 -1563.88 708.888
-1389.0601 -1563.97 710.55798
-1389.0601 -1563.9301 712.25299
-1389.0699 -1563.88 713.95001
-1389.0699 -1563.86 716.48798
-1389.0699 -1563.89 718.17102
-1389.08 -1563.73 720.73499
-1389.08 -1563.75 723.26703
-1389.09 -1563.66 724.97198
-1389.1 -1563.5699 726.67999
-1389.1 -1563.52 728.38098
-1389.11 -1563.4399 730.086
-1389.11 -1563.38 731.78601
-1389.12 -1563.37 733.48102
-1389.12 -1563.29 735.18799
-1389.13 -1563.1899 736.89899
-1389.13 -1563.24 739.42999
-1389.14 -1563.1 741.146
-1389.14 -1563.13 743.685
-1389.15 -1562.98 745.40302
-1389.15 -1563.01 747.09302
-1389.15 -1563.04 749.63202
-1389.15 -1563 751.336
-1389.15 -1562.97 753.039
-1389.15 -1563.08 754.72101
-1389.15 -1562.98 756.43201
-1389.16 -1562.9399 758.138
-1389.17 -1562.86 760.69702
-1389.17 -1562.8101 763.25299
-1389.2 -1562.49 765.84601
-1389.2 -1562.53 767.54199
-1389.21 -1562.45 776.914
-1389.22 -1562.34 786.29901
-1389.23 -1562.1899 788.875
-1389.23 -1562.15 790.58691
-1389.25 -1561.97 794.02002
-1389.26 -1561.9 798.29498
-1389.27 -1561.72 800.02191
-1389.29 -1561.55 806.02002
-1389.29 -1561.52 817.146
-1389.3 -1561.51 818.86102
-1389.28 -1561.9 869.591
-1389.28 -1561.91 872.18402
-1389.27 -1561.99 873.91101
-1389.27 -1561.95 875.64001
-1389.27 -1562.05 879.09698
-1389.27 -1562.01 884.29303
-1389.27 -1562.01 886.89203
-1389.27 -1562.0699 888.62299
-1389.27 -1562.0601 890.35699
-1389.26 -1562.1801 899.90002
-1389.26 -1562.21 903.37402
-1389.26 -1562.21 905.112
-1389.25 -1562.38 907.71997
-1389.25 -1562.38 916.42102
-1389.24 -1562.51 918.16498
-1389.24 -1562.55 920.77899
-1389.24 -1562.55 923.39398
-1389.23 -1562.62 925.13898
-1389.23 -1562.63 926.88397
-1389.23 -1562.6801 928.63098
-1389.22 -1562.75 931.25
-1389.22 -1562.72 932.99597
-1389.22 -1562.72 934.74298
-1389.22 -1562.76 936.492
-1389.22 -1562.8199 938.242
-1389.22 -1562.85 939.99109
-1389.22 -1562.8 941.73792
-1389.21 -1562.9 943.49103
-1389.21 -1562.95 946.11902
-1389.21 -1562.9301 947.86902
-1389.21 -1562.95 949.62097
-1389.2 -1563.13 970.68701
-1389.2 -1563.1899 975.96698
-1389.2 -1563.14 977.72302
-1389.1801 -1563.47 996.25598
-1389.17 -1563.62 998.034
-1389.17 -1563.58 1000.68
-1389.16 -1563.71 1007.76
-1389.15 -1563.85 1009.55
-1389.15 -1563.88 1011.32
-1389.15 -1563.88 1013.98
-1389.11 -1564.38 1030
-1389.1 -1564.45 1033.5601
-1389.11 -1564.4399 1035.33
-1389.1 -1564.49 1037.12
-1389.1 -1564.55 1039.8
-1389.09 -1564.6801 1042.48
-1389.08 -1564.8 1046.95
-1389.08 -1564.76 1049.62
-1389.0699 -1564.91 1052.3101
-1389.0699 -1564.98 1055
-1389.05 -1565.13 1057.7
-1389.0601 -1565.09 1059.48
-1389.05 -1565.24 1062.1801
-1389.03 -1565.49 1070.26
-1389.02 -1565.52 1072.0601
-1389.02 -1565.58 1073.86
-1389 -1565.77 1076.5699
-1389 -1565.85 1078.38
-1388.99 -1565.91 1080.1801
-1388.92 -1566.89 1098.3101
-1388.91 -1566.9301 1100.12
-1388.9 -1567.08 1102.85
-1388.87 -1567.49 1112.84
-1388.86 -1567.62 1114.67
-1388.86 -1567.63 1116.48
-1388.85 -1567.78 1119.22
-1388.84 -1567.87 1121.05
-1388.84 -1567.89 1123.76
-1388.83 -1568.01 1126.5
-1388.83 -1568.04 1128.3199
-1388.8199 -1568.15 1130.15
-1388.8101 -1568.22 1132.88
-1388.8 -1568.4 1135.64
-1388.66 -1570.1801 1177.92
-1388.65 -1570.27 1179.77
-1388.65 -1570.3101 1181.61
-1388.64 -1570.4 1183.46
-1388.63 -1570.51 1185.3199
-1388.62 -1570.63 1187.1801
-1388.42 -1573.21 1224.67
-1388.41 -1573.24 1226.53
-1388.4 -1573.4399 1228.4399
-1388.39 -1573.48 1230.29
-1388.38 -1573.6801 1232.21
-1388.37 -1573.73 1234.0699
-1388.36 -1573.9 1235.97
-1388.35 -1574 1237.85
-1388.24 -1575.36 1261.48
-1388.24 -1575.45 1263.37
-1388.22 -1575.64 1266.23
-1388.21 -1575.78 1268.13
-1388.2 -1575.86 1270.02
-1388.1899 -1576.0601 1272.89
-1388.1801 -1576.1899 1274.8
-1388.17 -1576.28 1276.6899
-1388.13 -1576.76 1283.4
-1388.12 -1576.9 1286.25
-1388.1 -1577.1 1288.1899
-1388.09 -1577.3 1291.0601
-1388.08 -1577.4301 1292.98
-1388.0699 -1577.55 1294.9
-1388.05 -1577.72 1296.83
-1388.05 -1577.8 1298.74
-1388.04 -1577.91 1301.59
-1388 -1578.3199 1306.4399
-1388 -1578.4399 1308.35
-1387.98 -1578.59 1310.29
-1387.98 -1578.64 1312.1899
-1387.96 -1578.91 1315.11
-1387.95 -1578.99 1317.02
-1387.87 -1580.01 1333.4399
-1387.85 -1580.27 1335.4399
-1387.84 -1580.37 1337.36
-1387.84 -1580.39 1339.26
-1387.83 -1580.49 1341.1899
-1387.83 -1580.55 1343.11
-1387.8101 -1580.71 1345.0699
-1387.8 -1580.83 1347.01
-1387.79 -1580.99 1348.97
-1387.7 -1582.17 1371.29
-1387.67 -1582.55 1374.3101
-1387.66 -1582.64 1376.25
-1387.65 -1582.78 1379.17
-1387.63 -1582.97 1382.12
-1387.63 -1583.01 1384.05
-1387.62 -1583.16 1386.02
-1387.53 -1584.25 1398.9301
-1387.53 -1584.25 1400.85
-1387.5 -1584.55 1403.85
-1387.49 -1584.6801 1405.83
-1387.5 -1584.64 1407.73
-1387.47 -1584.9301 1409.78
-1387.47 -1585 1411.73
-1387.45 -1585.27 1415.6899
-1387.42 -1585.6 1420.66
-1389.72 -1565.97 623.70099
-1389.72 -1565.9399 625.37598
-1389.72 -1565.9399 627.04199
-1389.73 -1565.84 628.73798
-1389.75 -1565.66 630.453
-1389.75 -1565.61 637.14301
-1389.8 -1565.11 646.461
-1389.8 -1565.1 648.97101
-1389.8199 -1564.9301 654.034
-1389.8199 -1564.86 655.72601
-1389.83 -1564.79 658.25299
-1389.83 -1564.71 659.94397
-1389.84 -1564.6899 661.62701
-1390.05 -1562.65 770.06403
-1390.0601 -1562.54 772.63098
-1390.05 -1562.61 774.32501
-1390.0699 -1562.41 778.60797
-1390.0699 -1562.4399 781.159
-1390.08 -1562.3101 782.88
-1390.08 -1562.28 784.58698
-1390.11 -1562 792.297
-1390.11 -1561.96 796.57001
-1390.13 -1561.77 801.71301
-1390.14 -1561.65 803.43402
-1390.15 -1561.6 807.71301
-1390.15 -1561.61 810.27899
-1390.16 -1561.46 812.85999
-1390.16 -1561.52 815.42297
-1390.17 -1561.41 820.57001
-1390.16 -1561.52 822.276
-1390.17 -1561.4399 823.99591
-1390.17 -1561.4301 826.57001
-1390.17 -1561.46 828.28302
-1390.17 -1561.46 829.99902
-1390.16 -1561.5699 832.565
-1390.16 -1561.59 835.13898
-1390.16 -1561.6 836.85797
-1390.16 -1561.61 839.43402
-1390.16 -1561.63 841.15399
-1390.15 -1561.7 842.86798
-1390.15 -1561.6899 845.45001
-1390.15 -1561.6899 848.03198
-1390.15 -1561.71 849.75201
-1390.15 -1561.79 851.47101
-1390.14 -1561.83 853.19202
-1390.15 -1561.77 854.91699
-1390.14 -1561.8199 856.638
-1390.15 -1561.77 858.36603
-1390.14 -1561.9399 860.08398
-1390.14 -1561.86 861.81201
